-189 153 692
-191 154 693
-190 153 689
-189 152 685
-180 146 654
-179 146 650
-178 145 646
-177 145 642
-176 144 638
-191 159 699
-198 164 721
-197 163 716
-196 162 711
-192 161 700
-193 161 702
-192 160 697
-191 160 693
-182 154 664
-181 153 660
-180 153 656
-179 152 652
-178 152 649
-177 151 645
-200 172 729
-199 171 725
-198 170 720
-197 169 715
-195 169 711
-194 168 706
-193 167 701
-198 174 725
-197 173 720
-195 173 716
-194 172 711
-193 171 707
-192 171 702
-183 162 666
-201 179 733
-200 178 728
-199 177 724
-197 177 719
-196 176 714
-195 175 710
-200 182 734
-199 181 729
-198 180 724
-196 180 720
-195 179 715
-189 176 699
-204 188 747
-203 187 742
-202 186 737
-201 185 732
-199 184 727
-198 184 723
-203 191 748
-202 190 743
-201 189 738
-200 188 733
-198 188 728
-197 187 724
-196 186 719
-190 183 704
-185 176 678
-204 194 745
-203 193 741
-201 192 736
-200 192 731
-200 197 745
-204 198 751
-203 197 747
-202 196 742
-195 193 726
-194 193 721
-210 205 769
-208 204 764
-207 203 759
-206 202 754
-204 201 749
-203 200 744
-202 199 739
-212 209 775
-206 206 760
-205 205 755
-203 205 750
-207 206 755
-196 201 730
-194 194 708
-192 193 703
-209 211 767
-207 210 762
-206 209 757
-205 208 752
-204 207 747
-204 213 763
-213 217 778
-211 216 773
-210 215 768
-209 214 763
-198 209 739
-197 208 734
-214 221 784
-213 220 779
-211 219 773
-205 216 760
-206 216 759
-205 215 754
-206 221 771
-214 224 784
-213 223 779
-211 222 774
-210 221 769
-200 217 747
-198 216 743
-196 208 718
-192 206 710
-211 227 779
-210 226 774
-208 225 769
-207 224 764
-207 230 779
-215 232 791
-214 231 785
-212 230 780
-211 229 776
-210 228 771
-200 224 751
-209 235 786
-208 234 781
-206 233 777
-205 232 772
-204 231 767
-209 232 773
-209 238 787
-216 240 796
-214 239 791
-213 237 786
-212 236 781
-210 235 776
-201 231 758
-200 230 753
-198 223 733
-191 220 719
-213 243 791
-212 241 786
-210 240 782
-210 245 793
-216 247 800
-215 246 795
-213 244 790
-212 243 785
-211 242 780
-202 239 765
-201 238 760
-200 231 741
-199 230 737
-198 230 733
-196 229 728
-206 247 781
-210 253 798
-216 253 802
-214 252 797
-213 251 792
-212 250 787
-211 249 783
-203 246 770
-202 245 766
-201 239 748
-201 238 745
-200 237 741
-199 236 737
-198 235 733
-194 234 725
-215 259 802
-213 258 797
-212 256 792
-211 255 787
-210 254 783
-203 253 774
-203 247 757
-201 246 753
-201 245 749
-200 244 745
-199 243 741
-197 242 736
-197 241 733
-89 98 305
-27 137 334
-181 73 612
-165 74 593
-164 74 589
-163 74 586
-162 74 583
-161 74 579
-160 74 576
-160 74 573
-154 73 559
-160 76 580
-156 76 572
-155 74 561
-139 66 501
-138 66 499
-138 66 496
-104 49 371
-169 82 607
-168 82 603
-167 82 600
-161 81 585
-160 80 582
-161 81 584
-156 80 570
-164 84 597
-163 84 594
-162 84 590
-161 84 587
-160 83 584
-160 83 580
-168 88 609
-165 87 599
-164 87 596
-163 87 592
-162 86 589
-163 87 591
-158 86 577
-171 91 617
-165 90 601
-164 90 598
-163 89 594
-150 82 543
-184 103 676
-170 94 617
-169 94 613
-168 93 609
-167 93 606
-161 92 591
-170 97 620
-169 96 617
-168 96 613
-167 96 609
-166 96 606
-165 96 602
-164 95 598
-173 100 628
-172 100 624
-171 100 621
-170 100 617
-169 99 613
-168 99 610
-162 98 595
-171 103 624
-170 103 621
-169 102 617
-168 102 613
-167 102 610
-157 97 575
-186 116 687
-169 105 621
-168 105 617
-167 105 613
-166 105 609
-165 104 606
-174 110 636
-173 109 632
-172 109 628
-171 109 625
-170 109 621
-169 108 617
-178 114 648
-177 114 644
-176 113 640
-175 113 637
-174 113 633
-168 111 617
-177 117 648
-179 117 651
-178 117 647
-177 117 643
-176 116 639
-175 116 635
-194 133 718
-199 134 728
-195 133 716
-193 132 711
-158 108 579
-171 118 629
-190 131 697
-185 130 685
-178 123 653
-180 124 655
-179 123 651
-175 122 641
-174 122 637
-184 129 672
-183 128 668
-182 128 664
-181 128 659
-175 125 643
-174 125 639
-183 131 669
-184 132 671
-183 131 667
-182 131 663
-181 130 659
-180 130 655
-176 129 645
-166 122 609
-165 122 606
-164 121 602
-163 121 599
-162 121 595
-190 140 691
-186 139 680
-185 138 676
-184 138 671
-183 137 667
-182 137 663
-169 130 623
-168 129 619
-167 129 616
-167 128 612
-187 143 682
-186 143 677
-179 140 661
-193 148 700
-189 146 689
-187 146 684
-186 145 680
-185 145 676
-187 145 677
-177 139 644
-176 138 641
-175 138 637
-174 137 633
-213 170 778
-208 168 764
-196 156 713
-189 153 695
-191 154 697
-190 153 693
-188 153 688
-187 152 684
-189 153 686
-175 144 643
-179 146 651
-178 145 647
-177 145 643
-171 142 628
-191 159 700
-198 164 722
-194 162 711
-193 161 706
-192 161 702
-191 160 697
-189 160 693
-191 160 694
-182 154 666
-181 154 661
-180 153 657
-179 152 654
-178 152 650
-177 151 646
-171 149 631
-199 171 726
-198 170 721
-194 169 710
-195 169 712
-194 168 707
-193 168 703
-198 174 726
-197 174 722
-196 173 717
-194 172 712
-193 171 708
-187 169 691
-183 162 667
-201 179 735
-200 178 730
-199 178 725
-198 177 720
-196 176 716
-201 183 740
-200 182 735
-199 182 730
-198 181 726
-196 180 721
-195 179 716
-189 176 700
-205 188 748
-203 187 743
-202 186 738
-201 185 733
-200 185 729
-198 184 724
-204 191 749
-202 190 744
-201 190 739
-200 189 734
-198 188 730
-197 187 725
-196 186 720
-189 178 689
-185 176 679
-204 194 747
-203 193 742
-201 193 737
-200 192 732
-200 197 746
-204 199 753
-203 198 748
-202 197 743
-200 196 738
-194 193 723
-210 205 770
-208 204 765
-205 202 754
-206 202 755
-205 201 750
-203 201 745
-202 200 740
-212 210 777
-206 207 761
-205 206 756
-204 205 751
-202 204 746
-196 201 731
-194 194 709
-193 193 704
-209 211 768
-207 210 763
-206 209 758
-205 209 753
-204 208 748
-214 218 784
-208 215 769
-206 214 764
-205 213 759
-209 214 764
-198 209 740
-213 221 785
-214 221 785
-213 220 780
-207 217 766
-205 216 761
-206 216 760
-205 215 756
-215 226 791
-209 223 777
-208 222 772
-207 221 767
-210 222 771
-200 217 748
-197 209 724
-196 208 719
-192 207 711
-211 227 780
-210 226 775
-208 225 770
-207 224 765
-207 230 780
-215 232 792
-214 231 787
-212 230 782
-211 229 777
-201 225 756
-200 224 752
-209 235 788
-208 234 783
-206 233 778
-205 232 773
-204 231 768
-209 233 775
-209 238 788
-216 240 797
-214 239 792
-213 238 787
-212 237 782
-203 233 764
-201 232 759
-199 225 738
-198 224 734
-191 221 719
-213 243 792
-212 242 787
-210 241 783
-210 246 794
-216 247 801
-215 246 796
-213 245 791
-212 244 786
-211 243 781
-202 239 766
-202 233 747
-200 232 742
-199 231 738
-198 230 733
-196 229 729
-206 247 782
-210 253 799
-216 253 803
-214 252 798
-213 251 793
-212 250 788
-211 249 784
-203 247 771
-202 246 767
-201 239 749
-198 238 743
-200 237 742
-199 236 738
-195 235 730
-194 234 726
-215 259 802
-213 258 798
-212 257 793
-211 256 788
-210 255 784
-203 253 775
-203 247 758
-201 246 754
-200 245 749
-199 244 745
-198 243 741
-197 242 737
-196 241 733
-89 98 305
-27 137 334
-182 73 613
-152 68 545
-164 74 590
-163 74 587
-162 74 584
-161 74 580
-160 74 577
-160 74 574
-184 78 627
-160 74 572
-159 76 578
-159 75 573
-152 74 554
-105 49 374
-105 49 373
-149 74 545
-115 55 412
-115 55 411
-114 55 409
-161 81 586
-160 81 583
-162 81 585
-156 80 571
-164 84 599
-163 84 595
-162 84 591
-161 84 588
-160 83 585
-160 83 581
-163 87 598
-165 87 601
-164 87 597
-163 87 593
-162 87 590
-159 86 581
-158 86 578
-153 82 556
-152 82 553
-151 82 550
-151 82 547
-189 104 689
-184 103 677
-165 93 606
-169 94 614
-168 94 610
-162 92 595
-161 92 592
-170 97 621
-169 97 618
-168 96 614
-167 96 610
-166 96 607
-165 96 603
-164 96 599
-173 101 629
-170 100 620
-169 99 616
-168 99 612
-169 100 614
-168 99 611
-162 98 596
-171 103 625
-170 103 622
-169 102 618
-168 102 614
-167 102 611
-157 97 576
-186 117 688
-169 105 622
-168 105 618
-167 105 614
-166 105 611
-165 104 607
-174 110 637
-173 110 633
-172 109 630
-171 109 626
-170 109 622
-169 108 618
-178 114 650
-177 114 646
-176 113 642
-175 113 638
-169 111 622
-168 111 618
-167 111 615
-176 117 646
-175 116 642
-177 117 644
-173 116 634
-172 115 630
-194 133 720
-199 135 730
-195 133 717
-193 133 712
-192 132 708
-191 132 703
-190 131 698
-179 124 658
-178 123 654
-177 123 650
-176 123 646
-175 122 642
-174 122 638
-185 129 673
-183 129 669
-182 128 665
-181 128 661
-175 126 644
-174 125 640
-183 131 671
-184 132 673
-183 131 668
-182 131 664
-181 131 660
-180 130 656
-176 129 646
-166 122 610
-165 122 607
-164 122 603
-163 121 600
-162 121 596
-187 139 681
-185 139 677
-184 138 673
-183 138 668
-179 136 658
-169 130 624
-168 129 620
-168 129 617
-167 129 613
-187 143 683
-186 143 678
-179 140 662
-187 146 688
-189 147 690
-188 146 685
-186 145 681
-185 145 677
-181 143 666
-172 137 634
-176 138 642
-175 138 638
-169 136 623
-207 167 764
-208 168 766
-196 156 714
-192 155 703
-191 154 699
-190 153 694
-189 153 690
-187 152 685
-189 153 687
-175 145 645
-174 144 641
-178 145 648
-172 143 633
-193 160 706
-191 159 701
-198 164 723
-194 162 712
-193 162 707
-192 161 703
-191 160 698
-190 160 694
-191 160 695
-182 154 667
-181 154 663
-180 153 659
-179 153 655
-178 152 651
-177 152 647
-171 149 632
-199 171 727
-195 170 716
-194 169 712
-193 168 707
-194 169 708
-194 173 720
-198 175 728
-197 174 723
-196 173 718
-194 172 714
-193 172 709
-187 169 693
-183 162 668
-199 178 730
-197 177 725
-196 177 720
-195 176 716
-196 176 717
-202 183 742
-200 183 737
-199 182 732
-198 181 727
-197 180 722
-195 180 718
-189 176 701
-205 188 749
-203 187 745
-199 185 734
-201 186 735
-200 185 730
-198 184 725
-204 191 750
-202 191 745
-201 190 740
-200 189 736
-199 188 731
-197 187 726
-196 187 722
-187 177 685
-186 177 680
-204 195 748
-203 194 743
-202 193 738
-200 192 734
-206 200 759
-204 199 754
-203 198 749
-202 197 744
-201 196 739
-199 195 735
-210 205 771
-206 203 761
-205 202 756
-203 202 751
-202 201 746
-203 201 746
-202 200 742
-207 208 767
-206 207 762
-205 206 757
-204 205 752
-202 204 748
-201 203 743
-194 194 710
-190 192 701
-209 212 769
-208 211 764
-206 210 759
-205 209 754
-204 208 749
-214 218 785
-208 215 770
-207 214 765
-205 213 760
-204 212 756
-198 209 741
-215 223 791
-214 222 786
-213 221 781
-207 218 767
-205 217 762
-207 217 762
-205 216 757
-215 226 792
-209 223 778
-208 222 773
-207 221 768
-206 220 763
-200 217 749
-197 209 725
-196 209 720
-192 207 712
-211 227 781
-210 226 776
-209 225 771
-207 224 767
-216 234 798
-211 231 785
-209 230 780
-208 229 775
-211 230 778
-201 225 757
-200 224 753
-209 236 789
-233 261 873
-206 233 779
-205 232 774
-208 233 777
-209 233 776
-217 241 803
-212 239 791
-210 238 786
-209 237 781
-212 237 783
-203 233 765
-201 232 760
-199 225 739
-198 224 735
-195 222 727
-213 243 793
-212 242 789
-210 241 784
-210 246 795
-216 247 802
-215 246 797
-213 245 792
-212 244 787
-211 243 782
-202 240 767
-202 233 748
-200 232 743
-199 231 738
-198 230 734
-196 229 730
-211 249 790
-210 253 800
-216 254 804
-213 252 798
-210 251 791
-212 250 789
-211 249 785
-203 247 772
-202 246 768
-201 239 750
-200 238 745
-197 237 739
-196 236 735
-195 235 731
-216 260 808
-215 259 803
-212 258 798
-211 257 794
-211 256 789
-210 255 785
-203 254 776
-202 253 772
-201 246 754
-200 245 750
-199 244 746
-198 243 742
-197 242 738
-196 241 734
-27 137 334
-181 73 611
-125 49 415
-163 74 588
-162 74 585
-161 74 581
-161 74 578
-160 74 575
-184 78 629
-160 74 573
-159 76 579
-160 75 574
-152 74 555
-151 74 552
-150 74 549
-149 74 546
-164 81 598
-163 81 594
-162 81 591
-161 81 587
-160 81 584
-157 80 575
-156 80 572
-164 84 600
-163 84 596
-162 84 593
-161 84 589
-161 84 586
-160 83 582
-163 87 599
-162 87 596
-164 87 598
-163 87 595
-160 86 586
-159 86 582
-158 86 579
-157 86 576
-152 82 554
-151 82 550
-151 82 548
-186 104 683
-166 93 611
-165 93 607
-164 93 604
-163 92 600
-162 92 596
-161 92 593
-170 97 623
-169 97 619
-168 96 615
-167 96 611
-166 96 608
-165 96 604
-164 96 600
-173 101 631
-170 100 621
-169 100 617
-168 99 613
-167 99 610
-163 98 600
-162 98 597
-171 103 627
-170 103 623
-169 103 619
-168 102 615
-167 102 612
-160 97 582
-170 106 627
-169 106 623
-168 105 619
-167 105 615
-166 105 612
-165 105 608
-174 110 639
-173 110 635
-172 109 631
-171 109 627
-170 109 623
-169 109 619
-179 114 651
-177 114 647
-176 114 643
-175 113 639
-169 112 623
-168 111 619
-167 111 616
-176 117 647
-175 116 643
-174 116 639
-173 116 635
-172 115 631
-194 133 721
-196 134 724
-195 133 719
-194 133 714
-192 132 709
-191 132 704
-187 130 692
-179 124 659
-178 124 655
-177 123 651
-176 123 647
-175 122 643
-174 122 639
-185 129 675
-184 129 670
-182 128 666
-181 128 662
-175 126 645
-174 125 641
-183 132 672
-182 131 668
-181 131 663
-182 131 665
-178 130 655
-177 129 651
-176 129 647
-166 122 611
-165 122 608
-164 122 604
-163 121 601
-162 121 597
-184 138 676
-183 138 672
-184 138 674
-181 137 663
-179 136 659
-169 130 625
-169 129 621
-168 129 618
-167 129 614
-187 143 684
-180 141 667
-179 140 663
-187 146 689
-189 147 691
-188 146 687
-187 146 682
-185 145 678
-182 144 668
-172 137 635
-171 137 631
-170 136 628
-169 136 624
-207 168 765
-209 168 768
-191 154 703
-192 155 705
-191 154 700
-190 154 695
-189 153 691
-188 153 686
-184 151 676
-175 145 646
-174 144 642
-173 144 638
-172 143 634
-193 160 707
-192 159 702
-193 162 712
-194 163 713
-193 162 709
-192 161 704
-191 161 700
-190 160 695
-186 158 685
-177 152 656
-182 154 664
-180 153 660
-179 153 656
-178 152 652
-177 152 648
-171 149 633
-197 170 722
-195 170 717
-194 169 713
-193 168 708
-192 168 704
-194 173 721
-198 175 729
-197 174 724
-196 173 720
-195 173 715
-188 170 698
-187 169 694
-203 180 742
-199 178 731
-197 178 726
-196 177 722
-195 176 717
-197 177 718
-202 184 743
-200 183 738
-199 182 733
-198 181 728
-197 181 724
-195 180 719
-206 189 756
-202 187 745
-201 186 740
-200 186 735
-198 185 730
-197 184 725
-198 184 726
-204 192 752
-202 191 747
-201 190 742
-200 189 737
-199 188 732
-197 188 727
-190 179 695
-187 178 686
-205 196 754
-204 195 749
-200 193 739
-202 193 740
-200 192 735
-206 200 760
-204 199 755
-203 198 750
-202 197 745
-201 196 741
-199 196 736
-207 205 767
-206 204 762
-205 203 757
-203 202 752
-202 201 747
-201 200 742
-202 200 743
-208 208 769
-206 207 764
-205 206 759
-204 205 754
-202 204 749
-201 204 744
-194 194 711
-190 193 702
-209 212 770
-208 211 765
-206 210 760
-205 209 755
-204 208 751
-209 216 777
-208 215 772
-207 214 767
-205 213 762
-204 213 757
-203 212 752
-206 219 773
-204 218 768
-203 217 763
-207 218 768
-206 217 763
-207 217 763
-205 216 758
-211 224 784
-209 223 779
-208 222 774
-207 221 769
-206 220 764
-204 219 760
-197 210 726
-196 209 721
-193 207 713
-211 228 782
-210 227 777
-209 226 773
-207 225 768
-216 234 799
-211 231 786
-209 230 781
-208 229 776
-207 228 771
-201 225 758
-210 237 795
-198 217 731
-197 216 727
-196 215 722
-205 233 775
-208 233 778
-209 233 777
-217 242 804
-212 239 792
-211 238 787
-209 237 783
-208 236 778
-203 233 766
-201 226 744
-199 225 740
-198 224 736
-195 223 728
-213 243 795
-212 242 790
-210 241 785
-217 249 808
-212 247 798
-211 245 793
-210 244 788
-209 243 783
-211 243 783
-202 240 768
-200 233 747
-200 232 744
-199 231 739
-198 230 735
-196 229 731
-211 249 791
-217 255 810
-214 254 803
-213 253 799
-212 252 794
-209 250 787
-211 250 786
-203 247 773
-203 241 756
-201 240 750
-200 239 746
-197 237 740
-196 236 736
-196 236 734
-216 261 809
-214 260 804
-212 259 799
-211 257 795
-210 256 790
-207 255 784
-209 254 781
-202 253 773
-201 247 755
-200 246 751
-199 245 747
-198 244 743
-197 243 739
-196 242 735
-27 137 334
-151 68 541
-193 80 655
-161 74 579
-160 74 576
-184 78 630
-170 76 596
-160 75 575
-171 78 599
-151 74 553
-150 74 550
-102 48 361
-164 81 599
-163 81 595
-162 81 592
-161 81 588
-160 81 585
-157 80 576
-156 80 573
-164 84 601
-163 84 597
-162 84 594
-162 84 590
-161 84 587
-160 84 583
-163 87 601
-162 87 597
-161 86 593
-160 86 590
-160 86 587
-159 86 583
-158 86 580
-157 86 577
-190 105 699
-152 82 551
-151 82 548
-186 104 684
-166 93 612
-165 93 608
-164 93 605
-163 93 601
-162 92 597
-161 92 594
-170 97 624
-169 97 620
-168 97 616
-167 96 612
-166 96 609
-165 96 605
-169 100 624
-168 99 620
-170 100 622
-169 100 618
-168 99 614
-169 100 617
-163 98 601
-172 104 632
-171 103 628
-170 103 624
-169 103 620
-168 103 616
-167 102 613
-160 97 583
-170 106 628
-169 106 624
-168 105 620
-167 105 616
-166 105 613
-175 110 644
-174 110 640
-173 110 636
-172 110 632
-171 109 628
-170 109 624
-169 109 620
-173 113 640
-178 114 648
-177 114 644
-170 112 628
-169 112 624
-168 111 620
-167 111 617
-176 117 648
-175 117 644
-174 116 640
-173 116 636
-172 116 632
-201 136 738
-196 134 725
-195 133 720
-194 133 715
-193 133 710
-191 132 706
-181 125 665
-180 124 660
-179 124 656
-177 123 652
-176 123 648
-175 123 644
-174 122 640
-185 129 676
-184 129 672
-183 129 667
-181 128 663
-175 126 646
-174 126 642
-183 132 673
-182 131 669
-181 131 665
-180 130 660
-178 130 656
-177 130 652
-176 129 648
-166 123 612
-165 122 609
-164 122 605
-163 122 602
-184 139 677
-183 138 673
-182 138 669
-181 137 665
-180 137 660
-170 130 626
-169 130 622
-168 129 619
-167 129 615
-187 144 685
-180 141 668
-188 147 695
-187 146 690
-186 146 686
-185 145 682
-184 145 677
-183 144 673
-182 144 669
-172 137 636
-171 137 632
-170 137 629
-169 136 625
-168 136 621
-209 168 769
-191 155 704
-189 154 699
-191 155 701
-190 154 697
-189 153 692
-188 153 688
-184 151 677
-175 145 647
-174 144 643
-173 144 639
-172 143 635
-193 160 708
-192 159 704
-193 162 713
-195 163 715
-193 162 710
-192 162 705
-191 161 701
-190 160 696
-186 159 686
-177 153 657
-182 154 665
-181 154 661
-180 153 657
-178 153 653
-172 150 638
-293 260 1097
-197 171 724
-195 170 719
-194 169 714
-193 169 709
-189 167 699
-194 173 722
-198 175 730
-197 174 726
-196 174 721
-195 173 716
-188 170 699
-184 163 675
-197 178 731
-199 179 732
-198 178 728
-196 177 723
-195 176 718
-191 175 708
-202 184 744
-201 183 739
-199 182 734
-198 182 730
-197 181 725
-190 178 708
-206 190 757
-202 188 746
-201 187 741
-200 186 736
-198 185 731
-197 184 727
-199 185 728
-204 192 753
-203 191 748
-201 190 743
-200 190 738
-199 189 733
-192 186 717
-188 178 691
-187 178 687
-206 196 756
-202 194 745
-200 193 740
-199 192 735
-200 193 736
-200 198 750
-205 199 757
-203 198 752
-202 198 747
-201 197 742
-194 194 726
-207 205 768
-206 204 763
-205 203 758
-204 202 753
-202 201 748
-201 200 744
-202 201 744
-202 206 759
-206 208 765
-205 207 760
-204 206 755
-203 205 750
-201 204 745
-194 195 712
-190 193 703
-209 212 772
-208 211 766
-206 210 761
-205 209 757
-204 208 752
-209 217 778
-208 216 773
-207 215 768
-205 214 763
-204 213 758
-203 212 753
-206 219 774
-205 218 769
-203 217 764
-207 218 769
-206 217 764
-204 216 759
-204 216 757
-211 225 786
-210 224 780
-208 223 775
-207 222 770
-206 221 765
-204 220 761
-197 210 727
-196 209 722
-213 229 789
-211 228 784
-210 227 779
-209 226 774
-207 225 769
-212 233 792
-211 232 787
-210 231 782
-208 230 777
-207 229 772
-206 228 768
-199 218 736
-198 217 732
-197 216 728
-196 216 723
-205 233 776
-208 234 779
-209 233 778
-213 241 799
-212 239 794
-211 238 789
-209 237 784
-208 236 779
-207 235 774
-201 226 745
-200 225 741
-198 225 736
-195 223 729
-213 244 796
-212 243 791
-211 242 786
-217 249 809
-213 247 799
-211 246 794
-210 245 789
-209 244 784
-207 242 779
-203 240 768
-201 233 749
-200 232 745
-199 231 740
-198 230 736
-197 230 732
-211 249 792
-214 255 808
-214 254 804
-213 253 800
-212 252 795
-211 251 790
-208 249 783
-203 247 774
-203 241 756
-201 240 751
-200 239 747
-199 238 743
-198 237 739
-196 236 735
-214 261 809
-214 260 805
-212 259 800
-211 258 795
-210 257 791
-209 256 786
-209 254 782
-202 253 773
-201 247 756
-200 246 752
-199 245 748
-198 244 744
-197 243 740
-120 139 429
-27 137 334
-178 73 602
-192 80 652
-160 74 577
-154 73 563
-160 77 584
-103 48 369
-165 76 587
-171 78 600
-170 77 597
-169 77 593
-162 81 598
-164 81 600
-163 81 596
-162 81 593
-161 81 589
-158 80 580
-157 80 577
-156 80 574
-164 84 602
-163 84 598
-163 84 595
-162 84 591
-161 84 588
-164 87 605
-163 87 602
-162 87 598
-161 87 595
-161 86 591
-160 86 588
-159 86 584
-158 86 581
-157 86 578
-152 82 555
-152 82 552
-190 105 698
-154 85 565
-166 93 613
-165 93 609
-164 93 606
-163 93 602
-162 93 599
-162 92 595
-170 97 625
-169 97 621
-168 97 617
-167 97 613
-166 96 610
-165 96 606
-169 100 625
-168 100 621
-167 99 617
-169 100 619
-165 99 610
-164 99 606
-163 98 603
-172 104 633
-171 103 629
-170 103 625
-169 103 621
-168 103 618
-167 102 614
-171 106 633
-170 106 629
-169 106 625
-168 106 621
-167 105 617
-166 105 614
-175 111 645
-174 110 641
-173 110 637
-172 110 633
-171 109 629
-170 109 625
-174 113 645
-173 113 641
-172 113 637
-171 112 633
-170 112 629
-169 112 625
-168 111 621
-178 117 653
-177 117 649
-175 117 645
-174 116 641
-173 116 637
-172 116 633
-201 136 740
-196 134 727
-195 134 722
-194 133 717
-193 133 712
-188 131 700
-181 125 666
-180 124 662
-179 124 657
-178 124 653
-177 123 649
-175 123 645
-174 122 641
-182 129 671
-181 128 666
-180 128 662
-182 128 664
-175 126 648
-174 126 644
-183 132 674
-182 131 670
-181 131 666
-180 131 662
-179 130 657
-178 130 653
-167 123 617
-166 123 613
-165 122 610
-164 122 606
-163 122 603
-185 139 683
-184 139 679
-183 138 674
-182 138 670
-181 137 666
-180 137 662
-170 130 627
-169 130 623
-168 129 620
-167 129 616
-182 142 674
-180 141 669
-189 147 696
-187 147 692
-186 146 687
-185 146 683
-184 145 678
-183 145 674
-182 144 670
-172 138 637
-171 137 634
-170 137 630
-169 136 626
-168 136 622
-206 167 763
-201 165 750
-190 154 701
-188 154 696
-190 154 698
-189 154 693
-185 152 683
-184 151 678
-175 145 648
-174 145 644
-173 144 640
-172 144 636
-193 160 710
-192 160 705
-193 163 714
-192 162 709
-191 161 705
-192 162 707
-188 160 696
-187 159 691
-179 153 663
-178 153 659
-177 152 655
-176 152 651
-175 151 647
-174 151 643
-173 150 639
-195 170 723
-197 171 725
-196 170 720
-194 170 715
-193 169 711
-189 167 700
-194 174 724
-193 173 719
-197 175 727
-196 174 722
-189 171 705
-188 170 701
-179 162 664
-197 179 732
-199 179 734
-198 178 729
-196 177 724
-195 177 719
-191 175 709
-202 184 745
-201 183 741
-199 183 736
-198 182 731
-197 181 726
-190 178 709
-204 189 752
-202 188 747
-201 187 742
-200 186 738
-199 185 733
-197 185 728
-193 183 717
-204 192 754
-203 191 749
-201 191 744
-200 190 739
-199 189 735
-192 186 718
-188 179 692
-182 176 677
-203 195 751
-202 194 746
-200 193 741
-199 193 736
-198 192 732
-201 198 751
-205 200 758
-203 199 753
-202 198 748
-201 197 743
-194 194 727
-208 205 770
-206 204 765
-205 203 760
-204 202 755
-202 201 750
-201 201 745
-197 199 735
-203 206 760
-206 208 766
-205 207 761
-204 206 756
-203 205 751
-196 202 736
-192 194 708
-190 193 704
-209 213 773
-208 212 768
-204 210 758
-205 210 758
-204 209 753
-204 215 769
-208 216 774
-207 215 769
-206 214 764
-204 213 759
-198 210 744
-206 219 775
-205 218 770
-203 217 765
-207 219 770
-206 218 765
-204 217 761
-204 216 758
-211 225 787
-210 224 782
-208 223 777
-207 222 772
-206 221 767
-205 220 762
-203 219 757
-194 208 719
-213 229 790
-211 228 785
-210 227 780
-209 226 775
-207 225 770
-212 233 794
-211 232 789
-210 231 783
-208 230 778
-207 229 774
-206 228 769
-210 238 797
-198 218 733
-197 217 729
-231 261 871
-205 233 777
-208 234 780
-207 233 775
-213 241 800
-212 240 795
-211 239 790
-209 238 785
-208 236 780
-207 235 775
-201 227 746
-200 226 742
-197 224 734
-195 223 730
-213 244 797
-212 243 792
-211 242 787
-214 248 805
-213 247 800
-211 246 795
-210 245 790
-209 244 785
-208 243 780
-203 235 755
-201 234 750
-200 233 745
-199 232 741
-198 231 737
-197 230 733
-211 250 793
-214 255 809
-214 254 806
-213 253 801
-212 252 796
-209 251 789
-208 250 784
-203 248 775
-201 241 755
-201 240 752
-200 239 748
-199 238 744
-198 237 739
-196 236 735
-214 262 810
-212 260 805
-212 259 801
-211 258 796
-210 257 792
-207 256 786
-206 255 782
-202 253 774
-201 247 757
-200 246 753
-199 245 748
-198 244 744
-197 243 740
-123 144 442
-27 137 334
-124 49 412
-186 79 636
-171 76 602
-103 48 369
-167 77 593
-171 78 601
-170 78 598
-169 77 594
-162 81 599
-164 81 601
-163 81 597
-162 81 594
-161 81 590
-158 80 581
-157 80 578
-156 80 575
-164 84 603
-164 84 599
-160 84 590
-159 83 587
-161 84 589
-164 87 606
-163 87 603
-162 87 599
-162 87 596
-161 87 592
-160 86 589
-159 86 585
-158 86 582
-157 86 579
-152 83 556
-152 82 553
-187 104 692
-154 85 566
-166 93 614
-165 93 610
-164 93 607
-163 93 603
-163 93 600
-162 92 596
-170 97 626
-169 97 622
-168 97 618
-167 97 615
-167 96 611
-166 96 607
-169 100 626
-168 100 622
-167 100 618
-166 99 614
-165 99 611
-164 99 607
-173 104 638
-172 104 634
-171 104 630
-168 103 620
-169 103 622
-168 103 619
-168 103 615
-171 107 634
-170 106 630
-169 106 626
-168 106 622
-167 105 619
-166 105 615
-176 111 646
-175 110 642
-173 110 638
-172 110 634
-171 110 630
-170 109 626
-174 114 646
-173 113 642
-172 113 638
-171 113 634
-170 112 630
-169 112 626
-168 112 623
-178 118 654
-177 117 650
-176 117 646
-175 117 642
-174 116 638
-173 116 634
-201 136 741
-197 134 728
-195 134 723
-194 133 718
-193 133 713
-188 131 701
-181 125 667
-180 125 663
-179 124 659
-178 124 654
-177 123 650
-176 123 646
-186 130 683
-182 129 672
-181 128 668
-180 128 663
-179 128 659
-175 126 649
-174 126 645
-173 125 641
-182 132 671
-181 131 667
-180 131 663
-179 130 659
-178 130 654
-167 123 618
-166 123 614
-165 123 611
-164 122 607
-164 122 604
-185 139 684
-184 139 680
-183 138 675
-182 138 671
-181 137 667
-180 137 663
-170 130 628
-169 130 624
-168 130 621
-186 144 686
-182 142 675
-181 142 671
-189 147 698
-187 147 693
-186 146 688
-185 146 684
-184 145 680
-183 145 675
-182 144 671
-172 138 638
-171 137 635
-170 137 631
-169 136 627
-168 136 623
-206 168 765
-201 166 752
-190 154 702
-189 154 697
-187 153 693
-186 153 688
-185 152 684
-184 152 680
-175 145 649
-174 145 645
-173 144 641
-172 144 637
-190 159 704
-186 158 694
-193 163 715
-192 162 711
-191 162 706
-190 161 702
-188 160 697
-187 160 693
-179 154 664
-178 153 660
-177 153 656
-176 152 652
-175 151 648
-174 151 644
-173 150 640
-195 171 724
-194 170 720
-193 169 715
-194 170 717
-190 168 706
-189 167 701
-194 174 725
-193 173 720
-197 175 728
-196 174 723
-189 171 706
-188 170 702
-179 162 666
-197 179 734
-196 178 729
-195 177 724
-194 177 719
-193 176 715
-191 175 710
-202 184 747
-201 184 742
-199 183 737
-198 182 732
-192 179 715
-190 178 711
-201 188 748
-202 188 749
-201 187 744
-200 186 739
-199 186 734
-197 185 729
-193 183 719
-199 190 743
-203 192 751
-202 191 746
-200 190 741
-194 187 724
-192 186 720
-188 179 693
-182 176 678
-203 195 752
-202 195 747
-201 194 743
-199 193 738
-195 191 727
-201 198 752
-199 198 747
-198 197 743
-197 196 738
-196 195 733
-194 194 728
-205 204 765
-206 205 766
-205 204 761
-204 203 756
-202 202 751
-201 201 746
-197 199 736
-203 207 761
-201 206 756
-200 205 751
-199 204 747
-198 203 742
-196 202 737
-192 194 709
-191 193 705
-209 213 774
-205 211 764
-204 210 759
-203 209 754
-204 209 754
-204 215 770
-208 216 775
-207 215 770
-206 214 765
-204 213 760
-198 210 746
-206 220 777
-205 219 772
-203 218 767
-202 217 762
-206 218 767
-204 217 762
-204 216 759
-211 225 788
-210 224 783
-208 223 778
-207 222 773
-206 221 768
-205 220 763
-203 219 758
-194 209 720
-213 230 791
-211 229 786
-210 228 781
-209 227 776
-208 226 771
-212 233 795
-211 232 790
-210 231 785
-208 230 780
-207 229 775
-206 228 770
-211 238 798
-209 237 793
-233 262 879
-207 235 783
-205 234 778
-208 234 781
-207 233 776
-213 241 801
-212 240 796
-211 239 791
-209 238 786
-208 237 781
-207 236 776
-201 227 747
-200 226 743
-197 224 735
-215 246 803
-213 244 798
-212 243 793
-211 242 788
-214 249 806
-213 247 801
-211 246 796
-210 245 791
-209 244 786
-208 243 781
-201 235 754
-201 234 751
-200 233 746
-197 231 739
-198 231 738
-197 230 734
-212 250 794
-214 256 810
-213 254 805
-213 254 802
-210 252 795
-209 251 790
-208 250 785
-204 243 763
-202 241 757
-201 240 753
-200 239 749
-197 238 743
-196 237 738
-196 237 736
-214 262 811
-212 261 806
-211 260 801
-211 258 797
-209 257 792
-207 256 787
-206 255 783
-203 248 762
-201 247 758
-200 246 753
-199 245 749
-198 244 745
-197 243 741
-93 105 326
-27 137 334
-192 80 654
-162 75 584
-104 48 371
-166 77 592
-162 76 583
-171 78 602
-170 78 599
-169 78 595
-162 81 600
-164 82 602
-163 81 598
-162 81 595
-141 77 545
-158 81 582
-157 80 579
-156 80 576
-160 84 593
-164 84 600
-160 84 591
-159 84 588
-161 84 590
-164 87 607
-163 87 604
-163 87 600
-162 87 597
-161 87 593
-160 86 590
-159 86 586
-158 86 583
-153 83 560
-161 89 597
-160 89 593
-151 82 551
-154 85 567
-166 94 615
-165 93 611
-164 93 608
-164 93 604
-163 93 601
-162 93 597
-170 97 627
-170 97 623
-166 96 614
-165 96 610
-154 94 584
-166 96 608
-169 100 627
-168 100 623
-167 100 619
-166 99 616
-165 99 612
-165 99 608
-174 104 639
-170 103 629
-169 103 625
-168 103 621
-167 102 618
-166 102 614
-168 103 616
-171 107 635
-170 106 631
-169 106 627
-168 106 623
-167 106 620
-167 105 616
-176 111 647
-175 111 643
-174 110 639
-173 110 635
-172 110 631
-171 109 628
-174 114 647
-173 113 643
-172 113 639
-171 113 635
-170 112 631
-169 112 627
-168 112 624
-178 118 656
-177 117 651
-176 117 647
-175 117 643
-174 116 639
-173 116 635
-195 134 727
-197 135 730
-163 110 597
-162 110 593
-193 133 715
-189 132 702
-181 125 668
-180 125 664
-179 124 660
-178 124 656
-177 124 652
-176 123 647
-183 129 677
-182 129 673
-181 129 669
-180 128 665
-176 127 654
-175 126 650
-174 126 646
-173 126 642
-182 132 672
-181 131 668
-180 131 664
-179 131 660
-178 130 656
-167 123 619
-166 123 615
-165 123 612
-165 122 608
-185 140 686
-184 139 681
-183 139 677
-182 138 672
-181 138 668
-180 137 664
-170 131 629
-169 130 625
-168 130 622
-186 144 687
-182 142 676
-181 142 672
-189 148 699
-188 147 694
-186 147 690
-185 146 685
-184 145 681
-183 145 677
-182 144 672
-172 138 639
-171 137 636
-170 137 632
-169 137 628
-169 136 624
-206 168 766
-201 166 753
-190 155 703
-189 154 699
-187 153 694
-186 153 690
-185 152 685
-176 146 654
-175 145 650
-174 145 646
-173 145 642
-172 144 638
-190 160 706
-186 158 695
-193 163 717
-192 162 712
-191 162 707
-190 161 703
-188 161 698
-187 160 694
-179 154 665
-178 153 661
-177 153 657
-176 152 653
-175 152 649
-174 151 645
-197 172 731
-195 171 726
-194 170 721
-193 170 716
-192 169 712
-191 168 707
-189 168 702
-194 174 726
-193 173 721
-192 173 717
-191 172 712
-189 171 707
-188 171 703
-179 162 667
-198 179 735
-196 178 730
-195 178 725
-194 177 720
-193 176 716
-192 175 711
-202 185 748
-201 184 743
-200 183 738
-198 182 733
-192 179 716
-190 178 712
-201 188 749
-203 188 750
-201 188 745
-200 187 740
-199 186 735
-195 184 725
-194 183 720
-199 190 745
-203 192 752
-202 191 747
-200 190 742
-194 187 725
-193 186 721
-191 186 716
-182 176 679
-201 195 748
-202 195 749
-201 194 744
-199 193 739
-196 191 729
-201 199 754
-199 198 749
-198 197 744
-197 196 739
-196 195 734
-195 194 730
-193 194 725
-206 205 767
-205 204 762
-204 203 757
-203 202 752
-201 201 747
-197 199 737
-203 207 763
-201 206 758
-200 205 753
-199 204 748
-198 203 743
-196 202 738
-192 194 710
-186 192 696
-204 211 765
-206 211 765
-204 210 760
-203 209 755
-199 207 745
-205 215 771
-203 214 766
-202 213 761
-201 212 756
-200 211 751
-198 211 747
-211 222 788
-205 219 773
-204 218 768
-202 217 763
-206 218 768
-205 217 763
-208 225 785
-211 226 789
-210 225 784
-208 224 779
-207 223 774
-206 222 769
-205 221 764
-199 218 750
-194 209 721
-213 230 792
-209 228 783
-208 227 778
-204 225 769
-209 233 792
-208 232 787
-211 233 791
-210 232 786
-208 231 781
-207 229 776
-201 227 763
-200 226 758
-209 237 794
-208 236 789
-207 235 784
-205 234 779
-209 235 782
-207 233 777
-213 241 802
-212 240 797
-211 239 792
-209 238 787
-208 237 782
-207 236 777
-202 233 765
-198 226 740
-197 225 736
-215 246 804
-213 245 799
-212 244 794
-211 242 789
-214 249 807
-213 248 802
-211 247 797
-210 246 792
-209 244 787
-208 243 782
-201 235 755
-201 234 752
-198 233 745
-197 232 740
-196 231 736
-197 230 734
-212 250 795
-214 256 811
-213 255 806
-212 254 801
-210 252 796
-209 251 791
-208 250 786
-202 243 762
-202 242 758
-201 241 754
-198 239 748
-197 238 743
-196 237 739
-195 236 735
-214 262 812
-212 261 807
-211 260 802
-210 259 797
-209 258 793
-207 256 788
-203 255 781
-202 249 762
-201 248 758
-200 247 754
-199 246 750
-198 245 746
-197 244 742
-93 105 326
-27 137 334
-178 73 605
-124 49 413
-187 79 643
-141 68 522
-124 55 437
-166 77 593
-162 76 584
-171 78 603
-170 78 600
-169 78 596
-162 81 601
-164 82 603
-163 81 599
-162 81 596
-161 81 592
-140 77 543
-157 81 580
-156 80 577
-160 84 594
-164 84 601
-160 84 592
-159 84 589
-156 83 580
-164 87 608
-164 87 605
-163 87 601
-162 87 598
-161 87 594
-160 87 591
-159 86 587
-158 86 584
-162 90 601
-161 89 598
-160 89 594
-118 76 482
-122 79 498
-166 94 616
-165 93 613
-165 93 609
-164 93 605
-163 93 602
-162 93 598
-171 98 628
-167 97 618
-166 96 615
-165 96 611
-164 96 607
-166 96 609
-169 100 628
-168 100 624
-167 100 620
-167 100 617
-166 99 613
-129 90 531
-174 104 640
-170 103 630
-169 103 626
-168 103 622
-167 103 619
-166 102 615
-168 103 617
-134 97 552
-170 107 632
-169 106 628
-169 106 624
-168 106 621
-167 105 617
-166 105 613
-175 111 644
-174 110 640
-150 104 586
-172 110 633
-171 110 629
-175 114 648
-174 113 644
-173 113 640
-172 113 636
-171 113 632
-170 112 629
-179 118 661
-178 118 657
-177 118 653
-173 116 642
-175 117 645
-174 117 641
-173 116 637
-195 134 728
-164 110 601
-136 108 562
-136 108 559
-135 108 556
-192 133 711
-181 125 670
-180 125 665
-179 124 661
-178 124 657
-177 124 653
-176 123 649
-183 130 679
-182 129 674
-181 129 670
-180 128 666
-176 127 655
-175 127 651
-174 126 647
-173 126 643
-182 132 674
-181 132 669
-180 131 665
-179 131 661
-178 130 657
-167 124 620
-166 123 617
-165 123 613
-165 122 609
-187 140 691
-186 140 687
-184 139 682
-183 139 678
-182 138 674
-181 138 669
-180 137 665
-170 131 630
-169 130 627
-168 130 623
-186 144 688
-182 142 677
-181 142 673
-189 148 700
-188 147 696
-187 147 691
-185 146 687
-184 146 682
-183 145 678
-182 145 674
-172 138 641
-172 138 637
-171 137 633
-170 137 629
-208 169 773
-203 167 760
-201 166 755
-190 155 704
-189 154 700
-188 154 695
-186 153 691
-185 153 686
-176 146 655
-175 146 651
-174 145 647
-173 145 643
-192 161 712
-191 160 707
-195 164 723
-193 163 718
-192 163 713
-191 162 709
-190 161 704
-189 161 699
-187 160 695
-179 154 666
-178 153 662
-177 153 658
-176 152 654
-175 152 650
-174 151 646
-197 172 732
-196 171 727
-194 171 722
-193 170 718
-192 169 713
-191 168 708
-190 168 704
-194 174 728
-193 174 723
-192 173 718
-191 172 713
-190 172 709
-188 171 704
-199 180 741
-198 179 736
-196 179 731
-195 178 726
-194 177 722
-193 176 717
-192 176 712
-197 183 737
-201 184 744
-200 183 740
-193 180 722
-192 179 718
-191 179 713
-201 188 750
-200 187 745
-199 187 740
-197 186 735
-196 185 731
-195 184 726
-194 183 721
-199 191 746
-203 192 753
-202 191 748
-200 191 743
-194 187 727
-193 187 722
-191 186 717
-182 177 680
-201 195 749
-199 194 744
-198 193 739
-197 192 734
-196 191 730
-201 199 755
-200 198 750
-198 197 745
-197 196 740
-196 196 735
-195 195 731
-193 194 726
-204 204 763
-203 203 758
-204 203 758
-200 201 748
-199 200 743
-204 208 769
-203 207 764
-202 206 759
-200 205 754
-199 205 749
-198 204 744
-197 203 739
-189 194 707
-186 192 697
-204 211 766
-203 210 761
-202 209 756
-201 208 751
-199 207 746
-205 216 772
-203 215 767
-202 214 762
-201 213 757
-200 212 753
-198 211 748
-211 223 789
-205 219 774
-204 218 769
-202 217 764
-206 218 769
-205 217 764
-208 225 786
-211 226 790
-210 225 785
-209 224 780
-207 223 775
-206 222 770
-205 221 765
-199 218 751
-194 209 722
-208 228 785
-209 228 784
-208 227 779
-204 225 770
-209 233 794
-208 232 788
-211 233 792
-210 232 787
-209 231 782
-203 228 768
-202 227 764
-200 226 759
-209 237 796
-208 236 790
-207 235 785
-206 234 780
-209 235 783
-210 241 801
-213 242 803
-212 241 798
-211 240 793
-210 238 788
-208 237 783
-207 236 778
-202 234 766
-198 226 741
-197 225 737
-215 246 805
-213 245 800
-212 244 795
-211 243 790
-210 248 802
-213 248 803
-211 247 798
-210 246 793
-209 245 788
-204 242 777
-201 235 756
-199 234 750
-198 233 745
-197 232 741
-196 231 737
-195 230 733
-211 250 795
-214 256 812
-213 255 807
-212 254 802
-210 253 797
-209 252 792
-208 250 787
-202 243 763
-202 242 759
-199 241 753
-198 240 748
-197 239 744
-196 238 740
-195 237 736
-214 262 813
-212 261 808
-211 260 803
-210 259 798
-209 258 794
-207 257 789
-203 255 781
-202 249 764
-201 248 759
-200 247 755
-199 246 751
-198 245 747
-197 244 743
-94 105 327
-27 137 334
-194 80 661
-164 75 590
-104 48 373
-152 74 565
-156 75 572
-173 78 608
-172 78 605
-171 78 601
-170 78 597
-128 75 524
-164 82 604
-163 82 600
-162 81 597
-161 81 593
-140 77 544
-157 81 581
-156 81 578
-160 84 595
-159 84 591
-158 83 588
-157 83 584
-156 83 581
-165 87 610
-164 87 606
-163 87 602
-162 87 599
-161 87 595
-160 87 592
-159 87 588
-150 82 555
-120 76 490
-161 90 599
-160 89 595
-118 76 483
-122 79 499
-167 94 617
-166 94 614
-165 93 610
-164 93 606
-163 93 603
-162 93 599
-165 96 617
-162 96 608
-166 97 616
-165 96 612
-154 94 586
-161 95 599
-170 100 629
-169 100 625
-168 100 622
-167 100 618
-166 99 614
-129 91 532
-168 103 629
-170 103 631
-169 103 627
-168 103 624
-167 103 620
-166 102 616
-163 102 607
-226 147 863
-171 107 633
-170 106 629
-169 106 626
-168 106 622
-167 106 618
-130 96 535
-175 111 646
-151 104 590
-150 104 586
-149 104 583
-171 110 630
-175 114 650
-174 114 645
-173 113 641
-172 113 637
-171 113 634
-170 112 630
-179 118 662
-170 116 639
-174 117 648
-173 117 644
-172 116 640
-166 114 624
-173 116 638
-195 134 730
-164 110 602
-136 108 563
-136 108 560
-135 108 557
-134 108 554
-181 125 671
-180 125 666
-176 124 656
-175 123 652
-174 123 648
-176 123 650
-184 130 680
-182 129 676
-181 129 671
-180 129 667
-176 127 656
-175 127 652
-174 126 648
-136 114 560
-182 132 675
-181 132 671
-180 131 666
-179 131 662
-178 130 658
-167 124 621
-166 123 618
-166 123 614
-165 123 610
-187 141 693
-186 140 688
-184 140 684
-181 138 673
-182 139 675
-181 138 671
-180 138 666
-134 118 550
-133 118 547
-132 118 545
-186 144 690
-182 143 679
-181 142 674
-189 148 701
-188 148 697
-187 147 692
-186 146 688
-184 146 683
-183 145 679
-182 145 675
-173 138 642
-172 138 638
-171 137 634
-170 137 630
-208 169 775
-203 167 761
-202 166 756
-190 155 706
-189 155 701
-188 154 697
-187 153 692
-185 153 688
-176 146 656
-175 146 652
-174 145 648
-173 145 644
-192 161 713
-188 159 702
-195 164 724
-193 164 719
-192 163 715
-191 162 710
-190 162 705
-189 161 701
-188 160 696
-179 154 667
-178 154 663
-177 153 659
-176 153 655
-175 152 651
-174 152 647
-197 172 733
-196 172 728
-194 171 724
-193 170 719
-192 169 714
-191 169 709
-190 168 705
-194 175 729
-193 174 724
-192 173 719
-191 172 715
-190 172 710
-189 171 705
-199 180 742
-198 180 737
-197 179 733
-195 178 728
-194 177 723
-193 177 718
-192 176 714
-197 183 738
-195 182 733
-194 181 728
-193 180 724
-192 180 719
-191 179 714
-201 189 752
-200 188 746
-199 187 742
-197 186 737
-196 185 732
-195 185 727
-194 184 722
-199 191 747
-203 193 755
-202 192 749
-195 189 733
-194 188 728
-193 187 723
-192 186 719
-182 177 682
-201 195 750
-199 194 745
-198 193 740
-197 193 736
-196 192 731
-201 199 756
-200 198 751
-198 198 746
-197 197 741
-196 196 737
-195 195 732
-194 194 727
-204 204 764
-203 203 759
-201 202 754
-200 201 749
-199 201 744
-204 209 770
-203 208 765
-202 207 760
-200 206 755
-199 205 750
-198 204 745
-197 203 741
-190 194 708
-186 192 698
-204 212 767
-203 211 762
-202 210 757
-201 209 752
-206 217 779
-205 216 774
-203 215 769
-202 214 764
-201 213 759
-200 212 754
-198 211 749
-211 223 791
-205 220 775
-204 219 770
-202 218 765
-206 219 770
-202 217 760
-208 225 787
-211 226 792
-210 225 787
-209 224 781
-207 223 776
-206 222 771
-200 219 757
-199 218 752
-194 209 723
-208 229 786
-207 228 781
-206 227 776
-205 226 771
-209 233 795
-208 232 790
-207 231 784
-205 230 779
-204 229 774
-203 228 770
-202 227 765
-200 226 760
-209 238 797
-208 237 792
-207 236 787
-206 234 782
-209 235 785
-210 242 802
-214 242 804
-212 241 799
-211 240 794
-210 239 789
-208 238 784
-207 237 779
-202 234 767
-198 226 742
-197 225 738
-211 245 800
-209 244 795
-208 243 790
-211 249 808
-210 248 803
-209 247 798
-211 247 799
-210 246 794
-205 244 783
-204 243 778
-203 242 773
-199 234 751
-198 233 746
-197 232 742
-196 231 738
-195 230 734
-212 257 813
-214 257 813
-213 255 808
-212 254 803
-210 253 798
-209 252 793
-204 250 783
-202 243 763
-202 242 760
-199 241 754
-198 240 749
-197 239 745
-196 238 741
-195 237 737
-214 263 814
-212 262 809
-211 260 804
-210 259 799
-209 258 795
-205 257 787
-203 255 782
-202 249 764
-198 248 758
-199 247 755
-198 246 751
-195 245 745
-197 244 743
-87 98 304
-26 137 334
-135 57 496
-142 67 527
-195 81 667
-152 73 567
-156 76 583
-142 68 527
-125 55 440
-152 74 566
-156 75 573
-173 78 609
-130 62 470
-129 62 468
-170 78 598
-128 75 525
-164 82 605
-163 82 601
-157 81 587
-162 81 594
-153 80 575
-139 77 542
-156 81 579
-160 84 596
-159 84 592
-158 84 589
-157 83 585
-156 83 582
-165 88 611
-164 87 607
-163 87 603
-143 83 558
-161 87 596
-160 87 593
-159 87 589
-150 82 556
-120 76 491
-119 76 488
-119 76 486
-118 76 483
-122 79 500
-167 94 619
-166 94 615
-165 93 611
-164 93 607
-163 93 604
-162 93 600
-165 97 618
-165 96 615
-161 95 605
-155 94 591
-162 96 604
-161 95 600
-170 100 630
-169 100 626
-168 100 623
-167 100 619
-166 100 615
-129 91 533
-168 103 630
-170 104 632
-169 103 629
-168 103 625
-167 103 621
-166 103 617
-163 102 608
-226 147 865
-133 97 551
-170 107 631
-169 106 627
-168 106 623
-167 106 619
-130 96 536
-170 110 634
-151 104 591
-150 104 587
-149 104 584
-166 108 619
-175 114 651
-174 114 647
-173 113 643
-172 113 639
-171 113 635
-133 102 548
-179 119 663
-175 117 653
-174 117 649
-173 117 645
-172 116 641
-171 116 637
-173 116 639
-195 135 731
-137 109 567
-136 109 564
-136 108 561
-135 108 558
-134 108 555
-188 132 702
-177 124 661
-176 124 657
-175 124 653
-174 123 649
-176 124 651
-130 106 535
-129 106 532
-129 106 529
-178 128 662
-177 127 658
-175 127 653
-174 127 649
-184 133 681
-182 132 676
-178 131 665
-177 131 661
-179 131 663
-178 131 659
-132 112 543
-167 124 619
-166 123 615
-130 111 534
-187 141 694
-183 139 683
-182 139 678
-181 138 674
-180 138 670
-178 137 665
-180 138 668
-134 118 551
-133 118 548
-132 118 545
-183 143 684
-182 143 680
-181 142 676
-189 148 703
-188 148 698
-187 147 694
-183 146 683
-184 146 685
-183 146 680
-174 139 647
-173 138 643
-172 138 639
-171 138 635
-209 170 782
-205 168 768
-203 167 763
-191 156 712
-190 155 707
-189 155 702
-188 154 698
-187 154 693
-185 153 689
-176 147 657
-175 146 653
-174 146 649
-173 145 645
-192 161 714
-188 159 703
-195 164 726
-194 164 721
-192 163 716
-191 162 711
-190 162 707
-189 161 702
-188 161 697
-179 154 668
-178 154 664
-177 153 660
-176 153 656
-175 152 652
-174 152 648
-197 173 735
-196 172 730
-195 171 725
-193 170 720
-192 170 715
-191 169 711
-190 168 706
-195 175 730
-193 174 725
-192 173 721
-191 173 716
-190 172 711
-189 171 707
-199 181 744
-198 180 739
-197 179 734
-195 178 729
-194 178 724
-193 177 720
-192 176 715
-197 183 739
-196 182 734
-194 181 730
-193 181 725
-192 180 720
-191 179 715
-201 189 753
-200 188 748
-199 187 743
-198 186 738
-196 186 733
-195 185 728
-200 192 754
-199 191 748
-198 190 744
-196 190 739
-195 189 734
-194 188 729
-193 187 724
-192 186 720
-182 177 683
-201 195 752
-200 194 747
-198 194 742
-197 193 737
-202 200 763
-201 200 758
-200 199 753
-198 198 748
-197 197 743
-196 196 738
-195 195 733
-205 205 770
-204 205 765
-203 204 760
-201 203 755
-200 202 750
-199 201 745
-204 209 772
-203 208 766
-202 207 761
-200 206 756
-199 205 751
-198 204 747
-197 203 742
-190 194 709
-186 192 699
-205 212 769
-203 211 764
-202 210 759
-201 209 754
-206 217 780
-205 216 775
-204 215 770
-202 214 765
-201 213 760
-200 212 755
-199 211 750
-206 221 782
-205 220 777
-204 219 771
-202 218 766
-206 219 771
-202 217 762
-208 226 788
-211 227 793
-210 226 788
-209 225 783
-207 224 777
-201 220 763
-200 219 758
-193 210 725
-194 210 724
-208 229 787
-207 228 782
-206 227 777
-206 226 774
-209 234 796
-208 233 791
-207 232 786
-205 231 781
-204 229 776
-203 228 771
-202 227 766
-200 226 761
-210 238 798
-208 237 793
-207 236 788
-206 235 783
-209 235 786
-211 242 803
-214 242 806
-212 241 800
-211 240 795
-210 239 790
-208 238 785
-203 235 773
-202 234 768
-198 226 743
-193 224 732
-211 245 801
-210 244 796
-208 243 791
-211 250 809
-210 248 804
-209 247 799
-208 246 794
-206 245 789
-205 244 784
-204 243 779
-203 242 774
-197 234 749
-198 233 747
-197 232 743
-196 231 739
-193 230 732
-212 257 814
-214 257 814
-213 256 809
-212 254 804
-210 253 799
-209 252 794
-204 250 784
-203 249 780
-199 242 757
-199 241 754
-198 240 750
-197 239 746
-196 238 742
-195 237 738
-214 263 815
-212 262 810
-211 261 805
-210 260 800
-206 258 793
-205 257 788
-201 250 768
-202 249 765
-200 248 760
-199 247 756
-198 246 751
-197 245 747
-197 244 744
-87 98 305
-26 137 335
-173 62 589
-132 57 487
-132 57 485
-130 57 480
-130 57 478
-181 73 616
-195 81 669
-153 73 568
-156 76 584
-142 68 527
-195 82 667
-152 75 567
-156 75 574
-130 62 473
-126 55 433
-125 55 431
-128 62 466
-128 75 526
-164 82 606
-163 82 603
-158 81 588
-157 81 584
-161 81 592
-153 80 572
-157 81 580
-160 84 597
-159 84 593
-158 84 590
-157 83 586
-156 83 583
-165 88 612
-145 84 565
-165 88 610
-155 86 584
-142 83 556
-142 83 553
-159 87 590
-150 82 557
-136 80 526
-119 76 489
-119 76 486
-134 79 518
-152 85 565
-167 94 620
-166 94 616
-165 94 612
-164 93 609
-163 93 605
-127 85 525
-166 97 620
-165 96 616
-164 96 612
-163 96 608
-162 96 605
-161 96 601
-170 101 631
-169 100 628
-168 100 624
-167 100 620
-166 100 616
-129 91 533
-169 103 631
-168 103 627
-167 103 624
-168 103 626
-165 102 616
-164 102 612
-163 102 609
-227 147 868
-133 97 552
-170 107 632
-169 106 628
-168 106 624
-167 106 620
-130 96 537
-170 110 636
-169 109 632
-150 104 588
-167 109 624
-166 108 620
-175 114 652
-174 114 648
-173 114 644
-172 113 640
-171 113 636
-133 102 549
-174 117 652
-170 116 641
-174 117 650
-173 117 646
-172 117 642
-166 115 626
-173 117 640
-150 120 626
-188 132 713
-136 109 565
-136 108 562
-135 108 559
-134 108 556
-185 131 696
-175 124 656
-176 124 658
-175 124 654
-174 123 650
-171 122 640
-178 128 669
-177 128 665
-176 127 661
-178 128 663
-177 128 659
-176 127 655
-136 114 564
-184 133 682
-180 132 671
-179 131 667
-178 131 662
-156 123 611
-178 131 660
-132 112 544
-131 112 541
-130 112 538
-130 111 535
-129 111 532
-187 141 695
-183 139 684
-182 139 680
-181 138 675
-180 138 671
-179 137 667
-180 138 669
-134 118 552
-133 118 549
-132 118 546
-183 144 686
-182 143 681
-181 143 677
-189 149 704
-174 143 667
-184 146 688
-183 146 684
-182 145 679
-183 146 681
-174 139 648
-173 139 644
-172 138 640
-171 138 636
-209 171 784
-205 168 770
-203 168 765
-191 156 713
-187 154 702
-186 154 697
-185 153 693
-184 153 688
-186 153 690
-176 147 658
-175 146 654
-174 146 650
-173 145 647
-189 160 709
-188 159 704
-195 165 727
-194 164 722
-192 163 717
-188 162 706
-190 162 708
-189 161 703
-188 161 699
-179 155 669
-178 154 665
-177 154 661
-176 153 657
-175 152 653
-174 152 649
-197 173 736
-196 172 731
-195 171 726
-193 171 721
-192 170 717
-191 169 712
-190 169 707
-195 175 731
-193 174 727
-192 174 722
-191 173 717
-190 172 712
-189 172 708
-179 163 671
-198 180 740
-197 179 735
-196 179 730
-194 178 726
-193 177 721
-192 176 716
-197 183 741
-196 183 736
-194 182 731
-193 181 726
-192 180 721
-191 179 717
-202 189 754
-200 188 749
-199 187 744
-198 187 739
-196 186 734
-195 185 730
-200 192 755
-199 192 750
-198 191 745
-197 190 740
-195 189 735
-194 188 730
-193 187 726
-186 179 693
-182 177 684
-201 196 753
-200 195 748
-198 194 743
-197 193 738
-202 201 764
-201 200 759
-200 199 754
-199 198 749
-197 197 744
-196 196 739
-195 195 734
-206 206 772
-204 205 767
